-0.401637 1.534352 0.427130 
-0.401637 1.535846 0.429940 
-0.401637 1.534585 0.430510 
-0.429631 1.540956 0.402383 
-0.428644 1.516341 0.206999 
-0.424903 1.528389 0.354011 
-0.427817 1.531704 0.403192 
-0.429548 1.516222 0.207009 
-0.401637 1.534973 0.425439 
-0.401637 1.533588 0.426677 
0.401637 1.533405 0.429075 
-0.401637 1.533405 0.429075 
0.401637 1.535806 0.430851 
0.426019 1.531586 0.403203 
0.429548 1.533373 0.403046 
0.429548 1.516222 0.207009 
0.424085 1.533016 0.403078 
0.428644 1.516341 0.206999 
0.426791 1.514430 0.206986 
0.428644 1.533492 0.403036 
-0.401637 1.534229 0.428744 
0.401637 1.534352 0.427130 
0.401637 1.541223 0.424135 
0.401637 1.535285 0.426296 
-0.401637 1.541223 0.424135 
-0.401637 1.540912 0.423278 
0.401637 1.534973 0.425439 
0.422449 1.539098 0.402546 
0.424366 1.515090 0.201935 
0.423330 1.539333 0.402525 
-0.401637 1.535285 0.426296 
0.401637 1.541789 0.422521 
0.401637 1.542540 0.422999 
-0.424366 1.515301 0.206768 
-0.422889 1.539215 0.402535 
0.401637 1.542104 0.421405 
-0.401637 1.542104 0.421405 
-0.401637 1.541789 0.422521 
0.401637 1.540912 0.423278 
0.422146 1.522179 0.203285 
0.423330 1.521900 0.203125 
0.420687 1.541352 0.402348 
-0.401637 1.542540 0.422999 
-0.420687 1.540721 0.405591 
-0.420687 1.541352 0.402348 
-0.401637 1.543013 0.421326 
0.401637 1.543013 0.421326 
0.001662 1.523024 0.203315 
0.420687 1.540444 0.402428 
0.000062 1.523076 -0.203912 
-0.420687 1.523927 -0.203125 
0.000000 1.523016 -0.203125 
0.420687 1.523024 -0.203315 
-0.438863 1.504369 -0.214138 
-0.438863 1.520161 -0.394641 
-0.401637 1.551430 -0.436119 
0.392112 1.524433 -0.442104 
-0.392112 1.524433 -0.442104 
0.439767 1.520280 -0.394631 
0.438863 1.520161 -0.394641 
0.438863 1.504369 -0.214138 
0.392112 1.524236 -0.441213 
0.401637 1.551232 -0.435228 
-0.392112 1.524236 -0.441213 
-0.401637 1.551232 -0.435228 
-0.435254 1.548303 -0.401740 
-0.439767 1.504488 -0.214128 
-0.439767 1.520280 -0.394631 
-0.430617 1.531342 -0.206510 
-0.436158 1.548421 -0.401730 
-0.434383 1.541637 -0.303996 
-0.430617 1.548421 -0.401730 
-0.401637 1.552556 -0.432803 
-0.401637 1.553181 -0.431890 
-0.401637 1.552299 -0.434472 
0.401637 1.551430 -0.436119 
0.401637 1.552621 -0.435531 
0.401637 1.552632 -0.433669 
0.401637 1.553406 -0.434460 
0.401637 1.552089 -0.432070 
0.401637 1.550907 -0.431510 
0.401637 1.550947 -0.430599 
0.433143 1.537389 -0.255209 
0.439767 1.504488 -0.214128 
0.435254 1.531224 -0.206526 
0.431521 1.531223 -0.206520 
0.435254 1.548303 -0.401740 
-0.401637 1.550907 -0.431510 
-0.435254 1.531224 -0.206526 
-0.431521 1.548303 -0.401740 
-0.431521 1.531223 -0.206520 
-0.428644 1.533492 -0.403036 
-0.401637 1.552621 -0.435531 
-0.401637 1.553406 -0.434460 
0.401637 1.553608 -0.433147 
-0.401637 1.553608 -0.433147 
0.401637 1.553181 -0.431890 
-0.401637 1.552222 -0.430971 
0.401637 1.552222 -0.430971 
-0.401637 1.550947 -0.430599 
0.401637 1.535806 -0.430851 
0.429548 1.533373 -0.403046 
0.431521 1.548303 -0.401740 
0.436158 1.548421 -0.401730 
0.436158 1.531342 -0.206516 
0.430617 1.531342 -0.206510 
0.431633 1.550224 -0.401572 
-0.429548 1.516222 -0.207009 
-0.422783 1.540379 -0.402433 
-0.424085 1.533016 -0.403078 
-0.429548 1.533373 -0.403046 
-0.401637 1.535846 -0.429940 
-0.401637 1.535023 -0.429710 
-0.401637 1.535806 -0.430851 
-0.401637 1.534585 -0.430510 
-0.401637 1.535285 -0.426296 
0.401637 1.534352 -0.427130 
0.429631 1.540956 -0.402383 
0.429548 1.516222 -0.207009 
0.401637 1.534973 -0.425439 
-0.401637 1.533588 -0.426677 
0.401637 1.533588 -0.426677 
-0.401637 1.533405 -0.429075 
0.401637 1.533405 -0.429075 
0.401637 1.534585 -0.430510 
-0.428644 1.516341 -0.206999 
-0.426019 1.531586 -0.403203 
-0.422449 1.539098 -0.402546 
0.401637 1.535846 -0.429940 
0.401637 1.534229 -0.428744 
-0.401637 1.534229 -0.428744 
-0.401637 1.534352 -0.427130 
0.401637 1.535285 -0.426296 
-0.401637 1.534973 -0.425439 
-0.401637 1.541223 -0.424135 
0.428644 1.516341 -0.206999 
0.427418 1.523080 -0.305092 
0.424903 1.532684 -0.403107 
0.424666 1.515685 -0.206720 
-0.401637 1.540912 -0.423278 
-0.424965 1.516070 -0.206672 
-0.423330 1.521900 -0.203125 
0.401637 1.541223 -0.424135 
0.401637 1.540912 -0.423278 
0.401637 1.542540 -0.422999 
0.423330 1.521900 -0.203125 
-0.401637 1.541789 -0.422521 
0.401637 1.542104 -0.421405 
-0.401637 1.542104 -0.421405 
0.401637 1.541789 -0.422521 
-0.420687 1.523024 -0.203315 
-0.422146 1.522179 -0.203285 
-0.420687 1.541352 -0.402348 
-0.420687 1.540444 -0.402428 
-0.401637 1.542540 -0.422999 
0.401637 1.543013 -0.421326 
0.422889 1.539215 -0.402535 
0.422413 1.523448 -0.203490 
0.420687 1.541352 -0.402348 
-0.000505 1.524032 -0.204372 
-0.401637 1.543013 -0.421326 
0.420687 1.540721 -0.405591 
0.439767 1.504488 0.214128 
0.438863 1.504369 0.214138 
-0.436158 1.531342 -0.206516 
-0.438863 1.503488 -0.193968 
-0.424965 1.515796 0.200386 
0.390525 1.520038 0.420174 
-0.390525 1.520038 0.420174 
-0.390525 1.525118 0.434144 
-0.400050 1.545415 0.434144 
0.400050 1.534602 0.433826 
-0.416992 1.552550 0.434144 
-0.423636 1.500833 0.433605 
0.416992 1.552550 0.434144 
-0.406504 1.501356 0.432619 
-0.424298 1.546596 0.432630 
0.400050 1.534175 0.432626 
-0.416992 1.552550 0.432626 
0.416993 1.552550 0.432626 
0.400050 1.537734 0.430842 
-0.400050 1.537734 0.430842 
0.400050 1.536210 0.431161 
0.400050 1.540759 0.430842 
-0.400050 1.540759 0.430842 
-0.400050 1.536210 0.431161 
-0.400050 1.534175 0.432626 
-0.400050 1.542283 0.431161 
0.400050 1.542283 0.431161 
-0.400050 1.544318 0.432626 
0.400050 1.544318 0.432626 
-0.390525 1.520477 0.429860 
-0.390525 1.521718 0.431569 
-0.390525 1.523547 0.432626 
0.390525 1.520477 0.429860 
0.390525 1.520038 0.427794 
-0.390525 1.520038 0.427794 
0.407086 1.514904 0.433329 
0.390525 1.521718 0.431569 
0.390525 1.523547 0.432626 
0.400050 1.541775 0.432324 
0.400050 1.539246 0.432112 
-0.400050 1.536718 0.432324 
0.400050 1.536718 0.432324 
-0.400050 1.534602 0.433826 
-0.400050 1.539246 0.432112 
-0.400050 1.533078 0.434144 
-0.400050 1.543891 0.433826 
-0.400050 1.541775 0.432324 
0.400050 1.545415 0.434144 
0.400050 1.533078 0.434144 
0.400050 1.543891 0.433826 
-0.393132 1.519277 0.430306 
0.390525 1.525118 0.434144 
-0.390525 1.522688 0.433661 
-0.390525 1.520628 0.432285 
0.390525 1.519251 0.430224 
0.390525 1.522688 0.433661 
0.390525 1.518768 0.427794 
0.390525 1.520628 0.432285 
-0.390525 1.518768 0.427794 
-0.390525 1.518768 0.420174 
0.390525 1.518768 0.420174 
0.390525 1.786738 0.420174 
0.390525 1.785468 0.420174 
-0.390525 1.785468 0.420174 
-0.400050 1.812115 0.434144 
0.400050 1.801302 0.433826 
-0.390525 1.791818 0.434144 
-0.390525 1.790247 0.432626 
0.390525 1.790247 0.432626 
-0.400050 1.811018 0.432626 
-0.400050 1.800875 0.432626 
-0.426487 1.774251 0.432625 
-0.416992 1.819250 0.432626 
0.416992 1.819250 0.432626 
0.424256 1.775871 0.434158 
-0.416992 1.819250 0.434144 
0.416992 1.819250 0.434144 
0.400050 1.804434 0.430842 
0.400050 1.808983 0.431161 
0.400050 1.807459 0.430842 
-0.400050 1.802910 0.431161 
-0.400050 1.804434 0.430842 
0.400050 1.802910 0.431161 
-0.400050 1.808983 0.431161 
-0.400050 1.807459 0.430842 
0.400050 1.811018 0.432626 
0.400050 1.800875 0.432626 
-0.390525 1.787177 0.429860 
-0.390525 1.788418 0.431569 
0.390525 1.788418 0.431569 
0.390525 1.787177 0.429860 
0.390525 1.786738 0.427794 
-0.390525 1.786738 0.427794 
-0.390525 1.786738 0.420174 
0.400050 1.805946 0.432112 
0.400050 1.803418 0.432324 
-0.400050 1.805946 0.432112 
0.400050 1.808475 0.432324 
-0.400050 1.803418 0.432324 
-0.400050 1.799778 0.434144 
-0.400050 1.808475 0.432324 
-0.400050 1.801302 0.433826 
-0.400050 1.810591 0.433826 
0.400050 1.810591 0.433826 
0.400050 1.812115 0.434144 
0.400050 1.799778 0.434144 
-0.390525 1.785468 0.427794 
-0.390525 1.785951 0.430224 
-0.390525 1.787328 0.432285 
-0.390525 1.789388 0.433661 
0.390525 1.787328 0.432285 
0.390525 1.785468 0.427794 
0.390525 1.791818 0.434144 
0.390525 1.785951 0.430224 
0.390525 1.789388 0.433661 
-0.420019 1.774480 0.434051 
-0.420687 1.790627 -0.203125 
0.000000 1.790627 0.203125 
-0.422412 1.790150 0.204458 
-0.438863 1.770188 0.193968 
-0.439767 1.770307 -0.193968 
-0.435254 1.797604 -0.199211 
-0.439767 1.770307 0.193968 
-0.434624 1.799822 -0.000003 
-0.435254 1.797604 0.199211 
-0.434392 1.798908 0.199155 
-0.436158 1.797723 -0.199211 
-0.433474 1.798994 -0.199151 
-0.432365 1.799855 -0.199143 
-0.430617 1.797723 -0.199217 
-0.432387 1.799412 0.199166 
-0.431521 1.797604 -0.199217 
-0.436158 1.797723 0.199211 
-0.431521 1.797604 0.199217 
-0.428644 1.782737 0.200037 
-0.429548 1.782618 0.200037 
-0.429548 1.782618 -0.200037 
-0.424965 1.782496 0.200386 
-0.430617 1.797723 0.199217 
-0.427909 1.780495 0.000017 
-0.428644 1.782737 -0.200037 
-0.426343 1.780298 -0.200240 
-0.425626 1.780441 0.200274 
-0.427388 1.781273 -0.200177 
-0.423330 1.788606 0.203268 
-0.423330 1.788600 -0.203125 
-0.424965 1.782496 -0.200386 
-0.422449 1.788364 -0.203125 
-0.424085 1.782260 0.200386 
0.422311 1.790162 0.203438 
0.420687 1.790627 0.203182 
0.422449 1.788364 -0.203125 
0.422449 1.788364 0.203125 
0.424965 1.782496 -0.200386 
0.424973 1.790660 -0.304933 
0.425626 1.780441 -0.200274 
0.426417 1.781205 -0.200245 
0.429548 1.782618 -0.200037 
0.429548 1.782618 0.200037 
0.428253 1.780612 0.200150 
0.424965 1.782496 0.200386 
0.427373 1.781267 0.200178 
0.426343 1.780298 0.200240 
0.427565 1.780378 -0.200183 
0.424366 1.781790 0.201935 
0.430617 1.797723 -0.199217 
0.428644 1.782737 0.200037 
0.428644 1.782737 -0.200037 
0.432735 1.799992 -0.199148 
0.436158 1.797723 -0.199211 
0.435254 1.797604 -0.199211 
0.431521 1.797604 -0.199217 
0.431521 1.797604 0.199217 
0.430617 1.797723 0.199217 
0.432785 1.800004 0.199148 
0.435183 1.799363 0.199164 
0.434640 1.799856 -0.199148 
0.433654 1.799133 -0.199146 
0.435254 1.797604 0.199211 
0.438863 1.770188 0.193968 
0.439767 1.770307 -0.193968 
0.436158 1.797723 0.199211 
0.438863 1.770188 -0.193968 
-0.420687 1.790627 0.203125 
0.000000 1.789716 0.203125 
0.000000 1.789862 0.204897 
0.439767 1.786980 0.394631 
0.438863 1.786861 0.394641 
0.392112 1.790936 0.441213 
0.401637 1.818130 0.436119 
-0.392112 1.791133 0.442104 
0.392112 1.791133 0.442104 
-0.438863 1.786861 0.394641 
-0.438863 1.771069 0.214138 
0.401637 1.817932 0.435228 
0.438863 1.771069 0.214138 
0.435254 1.797924 0.206526 
0.436158 1.798042 0.206516 
0.431521 1.797923 0.206520 
0.435254 1.815003 0.401740 
0.436158 1.815121 0.401730 
0.433613 1.808307 0.304003 
0.430617 1.815121 0.401730 
-0.401637 1.818130 0.436119 
-0.392112 1.790936 0.441213 
0.401637 1.818789 0.432070 
0.401637 1.819332 0.433669 
-0.401637 1.819321 0.435531 
-0.401637 1.817932 0.435228 
-0.401637 1.820308 0.433147 
-0.401637 1.819881 0.431890 
-0.401637 1.818789 0.432070 
-0.401637 1.818922 0.430971 
-0.429631 1.807657 0.402383 
-0.431633 1.816924 0.401572 
-0.435254 1.815003 0.401740 
-0.439767 1.786980 0.394631 
-0.436158 1.815121 0.401730 
-0.435254 1.797924 0.206526 
-0.430617 1.798042 0.206510 
-0.434360 1.816709 0.401591 
0.401637 1.818735 0.434833 
-0.401637 1.819332 0.433669 
0.429548 1.800073 0.403046 
0.401637 1.819714 0.434996 
0.401637 1.820308 0.433147 
-0.401637 1.820106 0.434460 
0.401637 1.819881 0.431890 
0.401637 1.818922 0.430971 
0.401637 1.817647 0.430599 
0.401637 1.802506 0.430851 
0.401637 1.802546 0.429940 
-0.401637 1.817607 0.431510 
-0.431521 1.815003 0.401740 
-0.433811 1.799824 0.206420 
-0.436158 1.798042 0.206516 
-0.429548 1.782922 0.207009 
-0.431521 1.797923 0.206520 
-0.401637 1.802506 0.430851 
0.401637 1.817607 0.431510 
0.431521 1.815003 0.401740 
0.428644 1.800192 0.403036 
0.430617 1.798042 0.206510 
-0.401637 1.817647 0.430599 
0.401637 1.800288 0.426677 
-0.401637 1.801985 0.426296 
-0.401637 1.801673 0.425439 
-0.401637 1.801285 0.430510 
-0.429548 1.800073 0.403046 
-0.428644 1.783041 0.206999 
-0.401637 1.800288 0.426677 
0.401637 1.800105 0.429075 
-0.401637 1.800105 0.429075 
0.401637 1.801285 0.430510 
0.429548 1.782922 0.207009 
0.424085 1.799716 0.403078 
0.428644 1.783041 0.206999 
0.426405 1.789708 0.305094 
-0.401637 1.802546 0.429940 
0.401637 1.801723 0.429710 
-0.401637 1.800929 0.428744 
0.401637 1.800929 0.428744 
0.401637 1.801052 0.427130 
-0.401637 1.801052 0.427130 
0.401637 1.801985 0.426296 
-0.427817 1.798404 0.403192 
-0.424903 1.795089 0.354011 
-0.424366 1.782001 0.206768 
0.401637 1.807611 0.423278 
0.401637 1.801673 0.425439 
0.423330 1.788600 0.203125 
0.424965 1.799952 0.403057 
0.401637 1.809240 0.422999 
-0.401637 1.807611 0.423278 
-0.401637 1.807923 0.424135 
-0.401637 1.808804 0.421405 
-0.422449 1.788364 0.203125 
-0.421809 1.806679 0.402867 
0.401637 1.808804 0.421405 
-0.401637 1.808489 0.422521 
0.401637 1.808489 0.422521 
0.420687 1.789716 0.203125 
0.418561 1.809021 0.413419 
0.401637 1.809713 0.421326 
-0.401637 1.809240 0.422999 
0.401637 1.807923 0.424135 
-0.401637 1.809713 0.421326 
-0.418561 1.808113 0.413498 
-0.418561 1.809021 0.413419 
-0.423330 1.806033 0.402525 
0.422024 1.807502 0.402396 
0.418561 1.808113 0.413498 
-0.420687 1.789716 0.203125 
-0.420687 1.789716 -0.203125 
0.001662 1.789716 -0.203125 
-0.001415 1.789794 -0.204111 
0.420687 1.789724 -0.203315 
0.420687 1.789716 -0.203125 
-0.438863 1.786861 -0.394641 
-0.435254 1.797924 -0.206526 
-0.436158 1.798042 -0.206516 
0.392112 1.791133 -0.442104 
0.401637 1.817932 -0.435228 
0.439767 1.771188 -0.214128 
0.439767 1.786980 -0.394631 
0.438863 1.786861 -0.394641 
0.435254 1.797924 -0.206526 
0.438863 1.771069 -0.214138 
-0.392112 1.790936 -0.441213 
-0.435254 1.815003 -0.401740 
-0.438863 1.771069 -0.214138 
-0.439767 1.786980 -0.394631 
-0.430617 1.798042 -0.206510 
-0.431521 1.815003 -0.401740 
-0.392112 1.791133 -0.442104 
0.392112 1.790936 -0.441213 
-0.401637 1.818789 -0.432070 
-0.401637 1.820308 -0.433147 
-0.401637 1.819714 -0.434996 
-0.401637 1.817932 -0.435228 
0.401637 1.818130 -0.436119 
0.401637 1.819321 -0.435531 
0.401637 1.819332 -0.433669 
0.401637 1.819881 -0.431890 
0.401637 1.818922 -0.430971 
0.401637 1.818789 -0.432070 
0.401637 1.817607 -0.431510 
0.431633 1.816924 -0.401572 
0.436158 1.815121 -0.401730 
0.433143 1.804089 -0.255209 
0.435254 1.815003 -0.401740 
-0.401637 1.819332 -0.433669 
-0.401637 1.818735 -0.434833 
-0.434383 1.808337 -0.303996 
-0.436158 1.815121 -0.401730 
-0.428644 1.783041 -0.206999 
-0.401637 1.818130 -0.436119 
0.401637 1.820106 -0.434460 
0.401637 1.820308 -0.433147 
-0.401637 1.819881 -0.431890 
-0.401637 1.818922 -0.430971 
-0.401637 1.802546 -0.429940 
-0.401637 1.817607 -0.431510 
0.401637 1.817647 -0.430599 
0.401637 1.802506 -0.430851 
0.429631 1.807657 -0.402383 
0.436158 1.798042 -0.206516 
0.430617 1.798042 -0.206510 
0.431521 1.797923 -0.206520 
0.429548 1.782922 -0.207009 
0.431521 1.815003 -0.401740 
-0.431521 1.797923 -0.206520 
-0.426019 1.798286 -0.403203 
-0.429548 1.782922 -0.207009 
-0.428644 1.800192 -0.403036 
-0.430617 1.815121 -0.401730 
-0.401637 1.817647 -0.430599 
-0.401637 1.801723 -0.429710 
-0.401637 1.801052 -0.427130 
-0.401637 1.800288 -0.426677 
-0.401637 1.801985 -0.426296 
0.401637 1.800288 -0.426677 
0.401637 1.800105 -0.429075 
0.401637 1.802546 -0.429940 
0.427418 1.789780 -0.305092 
0.429548 1.800073 -0.403046 
0.401637 1.801673 -0.425439 
-0.401637 1.800105 -0.429075 
-0.401637 1.801285 -0.430510 
0.401637 1.801285 -0.430510 
-0.401637 1.802506 -0.430851 
-0.429548 1.800073 -0.403046 
-0.424366 1.781790 -0.201935 
-0.424085 1.799716 -0.403078 
-0.426791 1.781130 -0.206986 
-0.401637 1.800929 -0.428744 
0.401637 1.800929 -0.428744 
0.401637 1.801052 -0.427130 
0.401637 1.801985 -0.426296 
0.401637 1.807923 -0.424135 
0.428644 1.783041 -0.206999 
-0.401637 1.801673 -0.425439 
-0.422449 1.805798 -0.402546 
-0.401637 1.807923 -0.424135 
-0.401637 1.808489 -0.422521 
-0.401637 1.807611 -0.423278 
0.401637 1.808489 -0.422521 
0.422896 1.789323 -0.202879 
0.423330 1.806033 -0.402525 
0.420687 1.807144 -0.402428 
-0.401637 1.808804 -0.421405 
0.401637 1.808804 -0.421405 
0.401637 1.807611 -0.423278 
-0.423330 1.806033 -0.402525 
-0.401637 1.809240 -0.422999 
0.401637 1.809240 -0.422999 
0.401637 1.809713 -0.421326 
-0.401637 1.809713 -0.421326 
0.420687 1.808052 -0.402348 
0.420687 1.790627 -0.203179 
0.000000 1.790627 -0.203125 
-0.420687 1.807144 -0.402428 
-0.420687 1.808052 -0.402348 
0.439767 1.770307 0.193968 
0.439767 1.771188 0.214128 
-0.439767 1.771188 -0.214128 
-0.438863 1.770188 -0.193968 
-0.439767 1.771188 0.214128 
-0.422378 1.790085 -0.202816 
0.424085 1.782260 -0.200386 
0.434144 1.793960 -0.398139 
0.434144 1.768316 -0.416992 
0.434100 1.817562 0.426264 
0.434082 1.818270 -0.426697 
0.434144 1.807046 -0.396994 
0.434144 1.768316 0.416992 
0.434144 1.776950 0.203477 
0.434144 1.798796 -0.203200 
0.432247 1.776950 0.203477 
0.432247 1.776950 -0.203477 
0.432247 1.800503 -0.397567 
0.432254 1.787454 0.411462 
0.432247 1.768316 -0.416992 
0.432255 1.818303 -0.426259 
0.432247 1.798796 0.203200 
0.432247 1.798796 -0.203200 
0.434144 1.798796 0.203200 
0.432247 1.816902 0.410155 
0.432247 1.768316 0.416992 
0.430109 1.803683 -0.397289 
0.430109 1.786709 -0.203034 
0.429707 1.783517 0.203255 
0.431044 1.804798 0.397191 
0.429707 1.783518 -0.203260 
0.431044 1.796207 -0.397943 
0.430109 1.780326 0.203477 
0.431979 1.805914 -0.397093 
0.432113 1.789517 -0.203034 
0.430109 1.786709 0.203034 
0.432247 1.790085 0.203034 
0.431979 1.795092 0.398040 
0.430109 1.780326 -0.203477 
0.430109 1.797323 0.397845 
0.431806 1.781174 -0.203477 
0.431806 1.785861 -0.203034 
0.431806 1.802837 -0.397363 
0.433676 1.788101 -0.203034 
0.431806 1.798169 -0.397771 
0.431806 1.802837 0.397363 
0.431806 1.798169 0.397771 
0.431806 1.781174 0.203477 
0.431806 1.785861 0.203034 
0.433676 1.788101 0.203034 
0.434144 1.790085 -0.203034 
0.434144 1.790085 0.203034 
0.434144 1.807046 0.396994 
0.434144 1.776950 -0.203477 
0.433676 1.778934 -0.203477 
0.434144 1.793960 0.398139 
0.433676 1.778934 0.203477 
-0.401320 0.388031 0.418338 
-0.401320 0.360708 0.106043 
0.401320 0.360561 0.423672 
0.401320 0.357830 0.422940 
0.401320 0.355831 0.420942 
0.401320 0.360561 0.418338 
0.401320 0.355100 0.418211 
-0.401320 0.355831 0.420942 
-0.401320 0.360561 0.418338 
-0.401320 0.357830 0.422940 
-0.401320 0.360561 0.423672 
-0.401320 0.360434 0.418211 
0.401320 0.393063 0.419966 
0.401320 0.393332 0.417735 
0.401320 0.360708 0.106043 
0.401320 0.360688 0.054772 
0.401320 0.366022 0.054772 
-0.401320 0.360688 0.105567 
-0.401320 0.355100 -0.418211 
0.401320 0.360434 0.418211 
0.401320 0.360434 -0.418211 
0.401320 0.388031 0.418338 
0.401320 0.366022 0.105567 
-0.401320 0.393332 0.417735 
-0.401320 0.393063 0.419966 
-0.401320 0.391918 0.421900 
0.401320 0.391918 0.421900 
-0.401320 0.390092 0.423210 
0.401320 0.390092 0.423210 
-0.401320 0.387892 0.423672 
0.401320 0.387892 0.423672 
-0.401320 0.355100 0.418211 
0.401320 0.355100 -0.418211 
-0.401320 0.366022 0.105567 
-0.401320 0.366022 0.054772 
-0.401320 0.360688 0.054772 
0.401320 0.388031 -0.418338 
0.401320 0.360561 -0.418338 
0.401320 0.355831 -0.420942 
-0.401320 0.357830 -0.422940 
-0.401320 0.360434 -0.418211 
0.401320 0.387892 -0.423672 
0.401320 0.390092 -0.423210 
0.401320 0.393063 -0.419966 
-0.401320 0.393063 -0.419966 
0.401320 0.366022 -0.105567 
0.401320 0.366022 -0.054772 
0.401320 0.360688 -0.105567 
-0.401320 0.360688 -0.054772 
-0.401320 0.393332 -0.417735 
-0.401320 0.360708 -0.106043 
-0.401320 0.388031 -0.418338 
-0.401320 0.360561 -0.418338 
0.401320 0.360708 -0.106043 
0.401320 0.360688 -0.054772 
-0.401320 0.366022 -0.105567 
0.401320 0.393332 -0.417735 
-0.401320 0.390092 -0.423210 
-0.401320 0.391918 -0.421900 
0.401320 0.391918 -0.421900 
0.401320 0.360561 -0.423672 
-0.401320 0.360561 -0.423672 
-0.401320 0.387892 -0.423672 
-0.401320 0.355831 -0.420942 
0.401320 0.357830 -0.422940 
-0.401320 0.366022 -0.054772 
-0.390525 0.796138 -0.427794 
-0.390525 0.794868 -0.420174 
0.390525 0.794868 -0.420174 
0.390525 0.796138 -0.420174 
-0.416992 0.828650 -0.434144 
0.390525 0.799647 -0.432626 
0.416937 0.778074 -0.432626 
-0.400050 0.820418 -0.432626 
-0.416991 0.828650 -0.432626 
0.400050 0.820418 -0.432626 
0.416992 0.828650 -0.432626 
0.416992 0.828650 -0.434144 
-0.400050 0.816859 -0.430842 
-0.400050 0.813834 -0.430842 
0.400050 0.813834 -0.430842 
-0.422972 0.783717 -0.432636 
0.400050 0.812310 -0.431161 
-0.400050 0.812310 -0.431161 
-0.400050 0.818383 -0.431161 
0.400050 0.818383 -0.431161 
0.400050 0.816859 -0.430842 
0.400050 0.810274 -0.432626 
-0.400050 0.810274 -0.432626 
-0.390525 0.799647 -0.432626 
0.390525 0.797818 -0.431569 
-0.390525 0.797818 -0.431569 
0.390525 0.796577 -0.429860 
-0.390525 0.796577 -0.429860 
-0.390525 0.796138 -0.420174 
0.421159 0.787617 -0.433891 
0.390525 0.796138 -0.427794 
0.400050 0.815346 -0.432112 
-0.400050 0.815346 -0.432112 
-0.400050 0.817875 -0.432324 
0.400050 0.817875 -0.432324 
0.400050 0.809178 -0.434144 
0.400050 0.810702 -0.433826 
0.400050 0.821515 -0.434144 
0.400050 0.819991 -0.433826 
-0.400050 0.819991 -0.433826 
0.400050 0.812818 -0.432324 
-0.400050 0.812818 -0.432324 
-0.400050 0.810702 -0.433826 
-0.400050 0.809178 -0.434144 
-0.400050 0.821515 -0.434144 
0.390525 0.795351 -0.430224 
0.390525 0.798788 -0.433661 
-0.390525 0.801218 -0.434144 
0.390525 0.801218 -0.434144 
-0.390525 0.798788 -0.433661 
-0.390525 0.796727 -0.432285 
-0.390525 0.795351 -0.430224 
0.390525 0.796727 -0.432285 
-0.390525 0.794868 -0.427794 
0.390525 0.794868 -0.427794 
-0.434144 0.803360 -0.398139 
-0.434144 0.816446 0.396994 
-0.434144 0.799485 0.203034 
-0.434144 0.786349 0.203477 
-0.434144 0.777716 -0.416992 
-0.432247 0.816446 -0.396994 
-0.432247 0.803360 -0.398139 
-0.432247 0.786349 -0.203477 
-0.432247 0.777716 -0.416992 
-0.432247 0.799485 -0.203034 
-0.432247 0.808196 -0.203200 
-0.432247 0.777716 0.416992 
-0.432247 0.808196 0.203200 
-0.434144 0.808196 0.203200 
-0.434141 0.827427 -0.418114 
-0.434144 0.808196 -0.203200 
-0.434144 0.777716 0.416992 
-0.432113 0.798917 0.203034 
-0.430109 0.796109 0.203034 
-0.430109 0.789726 -0.203477 
-0.429707 0.792917 0.203255 
-0.429972 0.811562 -0.397439 
-0.430109 0.813082 0.397289 
-0.431979 0.815314 0.397093 
-0.432247 0.809903 0.397567 
-0.430109 0.796109 -0.203034 
-0.432247 0.786349 0.203477 
-0.431044 0.805607 0.397943 
-0.430109 0.789726 0.203477 
-0.430109 0.806723 -0.397845 
-0.431806 0.807568 0.397771 
-0.431806 0.795261 0.203034 
-0.433676 0.797501 0.203034 
-0.431806 0.812237 0.397363 
-0.431806 0.812237 -0.397363 
-0.434144 0.816446 -0.396994 
-0.431806 0.790574 0.203477 
-0.433676 0.788334 0.203477 
-0.431806 0.795261 -0.203034 
-0.431806 0.790574 -0.203477 
-0.434144 0.799485 -0.203034 
-0.433676 0.797501 -0.203034 
-0.434144 0.803360 0.398139 
-0.431806 0.807568 -0.397771 
-0.434144 0.786349 -0.203477 
-0.433676 0.788334 -0.203477 
-0.390525 0.794868 -0.420174 
-0.400050 0.809178 -0.434144 
-0.400050 0.821515 -0.434144 
0.413259 0.784199 -0.434144 
0.400050 0.809178 -0.434144 
0.400050 0.821515 -0.434144 
-0.390525 0.801218 -0.434144 
0.390525 0.801218 -0.434144 
0.425682 0.784309 -0.433262 
0.416992 0.828650 -0.434144 
-0.416992 0.828650 -0.434144 
-0.390525 0.799647 -0.432626 
0.400050 0.810275 -0.432626 
-0.400050 0.820418 -0.432626 
0.416992 0.828650 -0.432626 
-0.416992 0.828650 -0.432626 
-0.417567 0.787139 -0.434128 
0.390525 0.799647 -0.432626 
-0.400050 0.816859 -0.430842 
-0.400050 0.813834 -0.430842 
-0.400050 0.812310 -0.431161 
0.400050 0.812310 -0.431161 
0.400050 0.813834 -0.430842 
0.400050 0.818383 -0.431161 
0.400050 0.816859 -0.430842 
0.400050 0.820418 -0.432626 
-0.400050 0.818383 -0.431161 
-0.400050 0.810275 -0.432626 
0.390525 0.796577 -0.429860 
0.390525 0.797818 -0.431569 
-0.390525 0.796138 -0.427794 
-0.390525 0.796577 -0.429860 
-0.390525 0.797818 -0.431569 
-0.390525 0.796138 -0.420174 
0.390525 0.796138 -0.427794 
0.390525 0.796138 -0.420174 
-0.400050 0.817875 -0.432324 
-0.400050 0.815346 -0.432112 
0.400050 0.812818 -0.432324 
-0.400050 0.812818 -0.432324 
0.400050 0.815346 -0.432112 
0.400050 0.817875 -0.432324 
0.400050 0.810702 -0.433826 
0.400050 0.819991 -0.433826 
-0.400050 0.819991 -0.433826 
-0.400050 0.810702 -0.433826 
0.390525 0.796728 -0.432285 
0.390525 0.798788 -0.433661 
-0.390525 0.798788 -0.433661 
0.390525 0.795351 -0.430224 
-0.390525 0.796728 -0.432285 
-0.390525 0.794868 -0.427794 
-0.390525 0.795351 -0.430224 
0.390525 0.794868 -0.427794 
0.390525 0.794868 -0.420174 
-0.434144 0.808196 -0.203200 
-0.434144 0.786349 0.203477 
-0.434144 0.786349 -0.203477 
-0.434144 0.799485 -0.203034 
-0.432247 0.816446 -0.396994 
-0.432247 0.777716 -0.416992 
-0.432247 0.777716 0.416992 
-0.432250 0.827697 -0.426551 
-0.432247 0.808196 -0.203200 
-0.432113 0.798917 0.203034 
-0.434145 0.827697 0.426499 
-0.432248 0.827309 0.418313 
-0.434144 0.808196 0.203200 
-0.432247 0.808196 0.203200 
-0.434144 0.777716 0.416992 
-0.434144 0.777716 -0.416992 
-0.430109 0.796109 0.203034 
-0.429707 0.792918 0.203260 
-0.430109 0.796109 -0.203034 
-0.429707 0.792917 -0.203255 
-0.431044 0.805607 0.397943 
-0.430109 0.789726 0.203477 
-0.430109 0.806723 -0.397845 
-0.429972 0.811562 -0.397439 
-0.430109 0.813083 0.397289 
-0.432247 0.799485 -0.203034 
-0.431979 0.815314 0.397093 
-0.432247 0.786349 0.203477 
-0.430109 0.789726 -0.203477 
-0.432247 0.786349 -0.203477 
-0.432247 0.803360 -0.398139 
-0.431806 0.812237 0.397363 
-0.433676 0.797501 0.203034 
-0.431806 0.795261 0.203034 
-0.431806 0.807569 0.397771 
-0.434144 0.803360 0.398139 
-0.433676 0.797501 -0.203034 
-0.431806 0.812237 -0.397363 
-0.431806 0.790574 0.203477 
-0.433676 0.788334 -0.203477 
-0.431806 0.795261 -0.203034 
-0.431806 0.790574 -0.203477 
-0.434144 0.799485 0.203034 
-0.434144 0.816446 0.396994 
-0.434144 0.816446 -0.396994 
-0.434144 0.803360 -0.398139 
-0.433676 0.788334 0.203477 
-0.431806 0.807569 -0.397771 
0.390525 1.062838 -0.420174 
-0.390525 1.061568 -0.420174 
0.390525 1.061568 -0.420174 
0.400050 1.088215 -0.434144 
-0.400050 1.088215 -0.434144 
-0.390525 1.067918 -0.434144 
-0.400050 1.075878 -0.434144 
0.390525 1.067918 -0.434144 
0.426517 1.054075 -0.434144 
0.416992 1.095350 -0.434144 
0.390525 1.066347 -0.432626 
-0.400050 1.087118 -0.432626 
0.400050 1.076975 -0.432626 
0.416992 1.095350 -0.432626 
-0.416991 1.095350 -0.432626 
-0.422394 1.052268 -0.433693 
-0.416992 1.095350 -0.434144 
0.400050 1.083559 -0.430842 
-0.400050 1.083559 -0.430842 
-0.400050 1.076975 -0.432626 
0.400050 1.079010 -0.431161 
-0.400050 1.080534 -0.430842 
-0.400050 1.085083 -0.431161 
0.400050 1.085083 -0.431161 
0.400050 1.080534 -0.430842 
0.400050 1.087118 -0.432626 
-0.400050 1.079010 -0.431161 
-0.390525 1.066347 -0.432626 
0.390525 1.064518 -0.431569 
-0.390525 1.063277 -0.429860 
0.390525 1.063277 -0.429860 
0.390525 1.062838 -0.427794 
-0.390525 1.064518 -0.431569 
-0.390525 1.062838 -0.427794 
-0.390525 1.062838 -0.420174 
0.426484 1.050336 -0.432624 
-0.400050 1.082047 -0.432112 
0.400050 1.079518 -0.432324 
-0.400050 1.079518 -0.432324 
-0.400050 1.084575 -0.432324 
0.400050 1.084575 -0.432324 
0.400050 1.086691 -0.433826 
0.400050 1.082047 -0.432112 
0.400050 1.075878 -0.434144 
0.400050 1.077402 -0.433826 
-0.400050 1.086691 -0.433826 
-0.400050 1.077402 -0.433826 
0.390525 1.061568 -0.427794 
0.390525 1.065488 -0.433661 
-0.390525 1.065488 -0.433661 
-0.390525 1.063428 -0.432285 
0.390525 1.063428 -0.432285 
0.390525 1.062051 -0.430224 
-0.390525 1.061568 -0.427794 
-0.390525 1.062051 -0.430224 
-0.434144 1.070060 0.398139 
-0.434144 1.083146 0.396994 
-0.434082 1.094370 0.426697 
-0.434144 1.053049 -0.203477 
-0.434144 1.044416 -0.416992 
-0.434144 1.074896 -0.203200 
-0.434144 1.066185 -0.203034 
-0.434144 1.066185 0.203034 
-0.432260 1.050505 -0.425357 
-0.432255 1.094403 0.426259 
-0.432247 1.044416 0.416992 
-0.432247 1.044416 -0.416992 
-0.432113 1.065617 0.203034 
-0.432247 1.074896 0.203200 
-0.434144 1.074896 0.203200 
-0.432247 1.074896 -0.203200 
-0.434100 1.093662 -0.426264 
-0.434144 1.044416 0.416992 
-0.432247 1.093002 -0.410155 
-0.430109 1.079782 0.397289 
-0.429707 1.059617 0.203255 
-0.430109 1.062809 0.203034 
-0.430109 1.062809 -0.203034 
-0.429972 1.078262 -0.397439 
-0.430109 1.073423 -0.397845 
-0.430109 1.056426 -0.203477 
-0.429707 1.059617 -0.203255 
-0.432247 1.076603 0.397567 
-0.432247 1.066185 -0.203034 
-0.431979 1.082014 0.397093 
-0.432247 1.070060 -0.398139 
-0.432247 1.083146 -0.396994 
-0.432247 1.053049 0.203477 
-0.431044 1.072307 0.397943 
-0.430109 1.056426 0.203477 
-0.432247 1.053049 -0.203477 
-0.431806 1.078937 0.397363 
-0.431806 1.061961 0.203034 
-0.431806 1.061961 -0.203034 
-0.431806 1.074269 0.397771 
-0.433676 1.064201 -0.203034 
-0.434144 1.083146 -0.396994 
-0.434144 1.070060 -0.398139 
-0.431806 1.074269 -0.397771 
-0.431806 1.057274 -0.203477 
-0.431806 1.057274 0.203477 
-0.433676 1.055034 0.203477 
-0.431806 1.078937 -0.397363 
-0.433676 1.055034 -0.203477 
-0.433676 1.064201 0.203034 
-0.434144 1.053049 0.203477 
0.003175 0.775527 0.005994 
0.003175 0.576772 0.005994 
0.149225 0.576772 0.005994 
0.161925 0.781877 0.005994 
-0.149225 0.775527 0.005994 
-0.155575 0.775527 0.005994 
-0.155575 0.576772 0.005994 
-0.425686 0.781877 0.005994 
0.155575 0.775527 0.000000 
-0.425393 0.376747 -0.000000 
-0.161925 0.781877 0.000000 
-0.003175 0.576772 0.000000 
0.003175 0.576772 0.000000 
0.142875 0.781877 0.000000 
-0.007006 0.781874 0.000004 
-0.149208 0.781860 0.000000 
0.149225 0.576772 0.000000 
0.003192 0.781861 0.000000 
0.425695 0.781876 0.005994 
0.161925 0.781877 0.000000 
0.425686 0.781877 0.000000 
0.425393 0.376747 0.000000 
0.429078 0.775874 0.000000 
0.429143 0.769177 0.006121 
0.430386 0.370996 0.002910 
0.425393 0.376747 0.005994 
0.433033 0.770227 0.001338 
0.427332 0.376743 0.000355 
0.429464 0.803943 0.393484 
0.435458 0.803887 0.393484 
0.429260 0.781877 0.141255 
0.435254 0.781821 0.141255 
0.435254 0.781821 0.027655 
0.431444 0.369071 0.203200 
0.425450 0.369127 0.203200 
0.425635 0.389126 0.431800 
0.431629 0.389070 0.431800 
0.435109 0.766141 0.431800 
0.429115 0.766196 0.431800 
0.435106 0.765790 0.393702 
0.435137 0.769122 0.006121 
0.435137 0.769122 0.027655 
0.431444 0.369071 0.006121 
0.429143 0.769177 0.027655 
0.429260 0.781877 0.027655 
0.429112 0.765845 0.393702 
0.425450 0.369127 0.006121 
-0.434759 0.769125 0.004003 
-0.426441 0.781876 0.000001 
-0.430115 0.774393 0.000091 
-0.425393 0.376747 0.005994 
-0.431444 0.369071 0.006121 
-0.428793 0.374829 0.001220 
-0.431066 0.369075 0.004003 
-0.429143 0.769177 0.006121 
-0.433344 0.769138 0.001793 
-0.425450 0.369127 0.006121 
-0.431629 0.389070 0.431800 
-0.425635 0.389126 0.431800 
-0.429260 0.781877 0.141255 
-0.435254 0.781821 0.141255 
-0.429464 0.803943 0.393484 
-0.435458 0.803887 0.393484 
-0.435106 0.765790 0.393702 
-0.435109 0.766141 0.431800 
-0.431444 0.369071 0.203200 
-0.435137 0.769122 0.016888 
-0.435254 0.781821 0.027655 
-0.429112 0.765845 0.393702 
-0.425450 0.369127 0.203200 
-0.429115 0.766196 0.431800 
-0.429260 0.781877 0.027655 
-0.429143 0.769177 0.027655 
-0.003175 0.775527 0.000000 
-0.003175 0.576772 0.005994 
0.149213 0.781866 0.005994 
0.149225 0.775527 0.000000 
0.155575 0.775527 0.005994 
0.155575 0.576772 0.000000 
0.155575 0.576772 0.005994 
-0.149225 0.576772 0.005994 
-0.149225 0.576772 0.000000 
-0.155575 0.576772 0.000000 
-0.155575 0.775527 0.000000 
0.007006 0.781874 0.005990 
-0.003192 0.781860 0.005994 
-0.145394 0.781874 0.005990 
-0.161925 0.781877 0.005994 
-0.003000 0.797053 0.377359 
-0.003000 0.781877 0.203898 
-0.003000 0.375477 0.190500 
-0.002999 0.395989 -0.421646 
-0.003000 0.391873 0.377913 
-0.003000 0.402073 0.421640 
-0.003000 0.801054 0.421640 
-0.003000 0.581217 -0.006350 
-0.003000 0.388177 -0.006350 
-0.003000 0.375477 -0.019050 
0.003000 0.375539 -0.006429 
-0.003000 0.391873 -0.377913 
0.003000 0.781877 0.203898 
0.003000 0.391873 -0.377913 
0.003000 0.781877 -0.203898 
0.003000 0.797053 0.377359 
0.003000 0.375477 0.190500 
0.003000 0.375477 0.019050 
0.003000 0.401946 0.421640 
0.003000 0.391873 0.377913 
0.003000 0.581217 -0.006350 
0.003000 0.375477 -0.190500 
-0.003000 0.375477 -0.190500 
0.000548 0.396007 0.422179 
0.003127 0.398075 0.377396 
0.038971 0.398145 0.378214 
0.040015 0.401790 0.419910 
0.039984 0.392225 0.379436 
0.038969 0.395887 0.421349 
-0.038919 0.797270 0.378171 
0.000118 0.803128 0.376840 
-0.039987 0.803294 0.378336 
-0.038976 0.806968 0.420275 
0.002998 0.806895 0.421637 
-0.040018 0.800901 0.419880 
-0.003000 0.781877 -0.203898 
-0.003000 0.797053 -0.377359 
0.002999 0.806999 -0.421632 
0.003127 0.398075 -0.377396 
0.038902 0.392179 -0.378743 
0.003000 0.401946 -0.421640 
0.038969 0.401874 -0.420838 
0.039985 0.395832 -0.420657 
0.040018 0.398230 -0.379154 
0.003000 0.797053 -0.377359 
-0.000428 0.803122 -0.376819 
-0.040089 0.797273 -0.378098 
-0.003000 0.801054 -0.421640 
-0.038971 0.800984 -0.420822 
-0.040425 0.806897 -0.419482 
-0.039098 0.803273 -0.378207 
-0.003000 0.375539 0.006429 
0.003000 0.388177 0.006350 
0.003000 0.581217 0.006350 
-0.003000 0.581217 0.006350 
0.007006 0.781874 -0.000004 
-0.003192 0.781861 -0.000000 
0.149225 0.576772 -0.005994 
0.155575 0.576772 -0.005994 
-0.003175 0.576772 -0.005994 
0.149225 0.775527 -0.005994 
0.425393 0.376747 -0.005994 
-0.149225 0.576772 -0.005994 
-0.161925 0.781877 -0.005994 
-0.007006 0.781874 -0.005990 
-0.149213 0.781866 -0.005994 
0.145394 0.781874 -0.005990 
-0.155575 0.576772 -0.005994 
0.155575 0.775527 -0.005994 
0.425686 0.781877 -0.005994 
-0.161925 0.781877 0.000000 
0.155575 0.576772 -0.000000 
0.425393 0.376747 0.000000 
-0.142875 0.781877 0.000000 
0.003175 0.775527 -0.000000 
-0.425695 0.781876 -0.005994 
-0.425686 0.781877 0.000000 
-0.425393 0.376747 -0.005994 
-0.425393 0.376747 0.000000 
-0.429078 0.775874 -0.000000 
-0.433033 0.770227 -0.001338 
-0.435137 0.769122 -0.006121 
-0.425450 0.369127 -0.006121 
-0.431444 0.369071 -0.006121 
-0.430386 0.370996 -0.002910 
-0.427332 0.376743 -0.000355 
-0.429143 0.769177 -0.006121 
-0.429464 0.803943 -0.393484 
-0.435458 0.803887 -0.393484 
-0.435254 0.781821 -0.027655 
-0.429260 0.781877 -0.027655 
-0.425635 0.389126 -0.431800 
-0.435109 0.766141 -0.431800 
-0.435254 0.781821 -0.141255 
-0.431629 0.389070 -0.431800 
-0.431444 0.369071 -0.203200 
-0.435106 0.765790 -0.393702 
-0.435137 0.769122 -0.027655 
-0.429260 0.781877 -0.141255 
-0.429115 0.766196 -0.431800 
-0.429143 0.769177 -0.027655 
-0.429112 0.765845 -0.393702 
-0.425450 0.369127 -0.203200 
0.435137 0.769122 -0.016888 
0.429143 0.769177 -0.006121 
0.431066 0.369075 -0.004003 
0.430115 0.774393 -0.000091 
0.426441 0.781876 -0.000001 
0.434759 0.769125 -0.004003 
0.431444 0.369071 -0.006121 
0.433344 0.769138 -0.001793 
0.425450 0.369127 -0.006121 
0.428793 0.374829 -0.001220 
0.435106 0.765790 -0.393702 
0.425635 0.389126 -0.431800 
0.435109 0.766141 -0.431800 
0.429115 0.766196 -0.431800 
0.429260 0.781877 -0.027655 
0.435254 0.781821 -0.027655 
0.435458 0.803887 -0.393484 
0.429112 0.765845 -0.393702 
0.429464 0.803943 -0.393484 
0.431629 0.389070 -0.431800 
0.431444 0.369071 -0.203200 
0.435254 0.781821 -0.141255 
0.425450 0.369127 -0.203200 
0.429143 0.769177 -0.027655 
0.429260 0.781877 -0.141255 
0.003175 0.576772 -0.005994 
-0.003175 0.576772 0.000000 
0.003175 0.576772 -0.000000 
-0.149225 0.775527 0.000000 
-0.149225 0.576772 0.000000 
-0.155575 0.775527 0.000000 
-0.155575 0.775527 -0.005994 
-0.155575 0.576772 0.000000 
0.149208 0.781860 -0.000000 
0.149225 0.576772 -0.000000 
0.155575 0.775527 -0.000000 
-0.003175 0.775527 -0.005994 
0.003192 0.781860 -0.005994 
0.161925 0.781877 -0.000000 
0.161925 0.781877 -0.005994 
-0.149191 1.054014 0.000000 
-0.076209 1.054010 0.005994 
-0.003209 1.054014 0.005994 
0.073031 1.054014 0.005994 
0.003209 1.054013 0.000000 
-0.161925 1.054027 0.005994 
-0.425697 1.054027 0.000000 
0.076200 0.925122 0.005994 
0.287330 0.863210 0.005994 
0.000000 0.801297 0.005994 
0.149225 0.925122 0.005994 
0.155575 0.925122 0.005994 
0.155575 1.047678 0.005994 
0.073025 0.989575 0.005994 
0.149222 1.050197 0.005990 
0.142875 1.054027 0.005994 
-0.155575 1.047678 0.005994 
-0.425726 1.054027 0.005994 
-0.155577 1.050249 0.000005 
-0.155575 0.925122 0.000000 
-0.429045 1.048026 0.000000 
0.155575 1.047678 0.000000 
0.161925 1.054027 0.000000 
0.429045 1.048026 -0.000000 
-0.003190 1.054007 0.000000 
-0.425434 0.801297 0.000000 
-0.003175 0.925122 0.000000 
0.003175 0.925122 -0.000000 
0.149225 0.925122 0.000000 
-0.425434 0.801297 0.005994 
0.425434 0.801297 -0.000000 
0.433671 1.040025 0.001777 
0.425697 1.054027 0.000000 
0.425434 0.801297 0.005994 
0.425450 0.793678 0.006121 
0.435068 1.041241 0.016888 
0.425697 1.054027 0.005994 
0.435019 1.037909 0.393704 
0.429260 1.054027 0.141136 
0.429260 1.054027 0.027655 
0.435254 1.053940 0.141136 
0.435254 1.053940 0.027655 
0.425743 0.813675 0.431800 
0.431444 0.793590 0.203200 
0.435027 1.038466 0.431800 
0.429034 1.038554 0.431800 
0.431736 0.813588 0.431800 
0.431444 0.793590 0.006121 
0.435577 1.076004 0.393358 
0.425450 0.793678 0.203200 
0.429583 1.076092 0.393358 
0.429025 1.037997 0.393704 
0.429074 1.041329 0.006121 
-0.425450 0.793678 0.006121 
-0.428907 0.798643 0.001648 
-0.435027 1.038466 0.431800 
-0.429034 1.038554 0.431800 
-0.429025 1.037997 0.393704 
-0.431736 0.813588 0.431800 
-0.429260 1.054027 0.027655 
-0.435254 1.053940 0.141136 
-0.435254 1.053940 0.027655 
-0.431444 0.793590 0.006121 
-0.431444 0.793590 0.203200 
-0.435577 1.076004 0.393358 
-0.435019 1.037909 0.393704 
-0.425450 0.793678 0.203200 
-0.425743 0.813675 0.431800 
-0.429583 1.076092 0.393358 
-0.429260 1.054027 0.141136 
-0.429074 1.041329 0.006121 
-0.435015 1.040628 0.003186 
0.003188 1.054002 0.005994 
0.003181 0.989562 0.005994 
0.155575 0.925122 -0.000000 
-0.149210 1.054006 0.005994 
-0.149217 0.989564 0.005994 
-0.155575 0.925122 0.005994 
-0.149225 0.925122 0.000000 
0.149205 1.053994 0.000000 
0.161925 1.054027 0.005994 
-0.161925 1.054027 0.000000 
-0.149400 1.054027 -0.203898 
-0.155400 0.800027 0.190500 
-0.155396 0.820541 -0.421655 
-0.155400 0.800202 -0.006516 
-0.155400 0.800027 0.019050 
-0.155400 1.054027 0.203898 
-0.155400 1.073205 0.421640 
-0.155398 0.946979 0.421640 
-0.155400 0.929567 0.006350 
-0.155400 0.929567 -0.006350 
-0.155400 1.054027 -0.203898 
-0.155400 0.816424 -0.377913 
-0.149400 0.947850 0.399500 
-0.149400 0.942814 0.377636 
-0.149400 0.800027 0.190500 
-0.149400 0.800027 -0.190500 
-0.149400 0.816424 -0.377913 
-0.149400 1.069203 -0.377359 
-0.149421 0.807663 -0.006376 
-0.149400 0.929567 -0.006350 
-0.149400 1.054027 0.203898 
-0.155400 0.800027 -0.190500 
-0.149400 0.800027 -0.019050 
-0.149273 0.822626 0.377396 
-0.149400 0.816424 0.377913 
-0.149400 0.821460 0.399776 
-0.112416 0.816776 0.379436 
-0.113429 0.822696 0.378214 
-0.149400 0.826497 0.421640 
-0.113431 0.820438 0.421349 
-0.155396 0.820754 0.421641 
-0.112385 0.826341 0.419910 
-0.155400 1.069203 0.377359 
-0.149406 1.079046 0.421633 
-0.191319 1.069420 0.378172 
-0.152403 1.076126 0.421636 
-0.152282 1.075279 0.376840 
-0.191376 1.079119 0.420275 
-0.192387 1.075445 0.378336 
-0.192418 1.073052 0.419880 
-0.149403 1.079134 -0.421621 
-0.149273 0.822626 -0.377396 
-0.113498 0.816730 -0.378743 
-0.112382 0.822780 -0.379154 
-0.113431 0.826425 -0.420838 
-0.112415 0.820383 -0.420657 
-0.149400 0.826496 -0.421640 
-0.152963 1.075284 -0.376823 
-0.192484 1.069461 -0.378018 
-0.191371 1.073126 -0.420820 
-0.155400 1.073144 -0.421640 
-0.192820 1.079047 -0.419461 
-0.191539 1.075438 -0.378323 
-0.155379 0.807663 0.006376 
-0.149400 0.929567 0.006350 
-0.149400 0.800202 0.006516 
0.003209 1.054014 -0.005994 
0.149191 1.054014 -0.000000 
-0.142875 1.054027 -0.005994 
-0.003209 1.054013 -0.000000 
0.425697 1.054027 -0.000000 
0.161925 1.054027 -0.005994 
-0.149225 0.925122 -0.005994 
-0.425697 1.054027 -0.005994 
-0.003175 0.925122 -0.005994 
-0.149222 1.050197 -0.005990 
0.155575 0.925122 -0.005994 
-0.161925 1.054027 -0.005994 
0.155575 1.047678 -0.005994 
-0.161925 1.054027 0.000000 
-0.429045 1.048026 0.000000 
0.161925 1.054027 -0.000000 
-0.155575 1.047678 -0.005994 
-0.155575 0.925122 0.000000 
-0.149225 0.925122 0.000000 
0.149225 0.925122 -0.000000 
-0.425434 0.801297 -0.005994 
0.425434 0.801297 -0.000000 
-0.425697 1.054027 0.000000 
-0.425434 0.801297 0.000000 
-0.435068 1.041241 -0.016888 
-0.433671 1.040025 -0.001777 
-0.429074 1.041329 -0.006121 
-0.429583 1.076092 -0.393358 
-0.429025 1.037997 -0.393704 
-0.435577 1.076004 -0.393358 
-0.435027 1.038466 -0.431800 
-0.431736 0.813588 -0.431800 
-0.435254 1.053940 -0.141136 
-0.435019 1.037909 -0.393704 
-0.435254 1.053940 -0.027655 
-0.429260 1.054027 -0.027655 
-0.425743 0.813675 -0.431800 
-0.429034 1.038554 -0.431800 
-0.429260 1.054027 -0.141136 
-0.425450 0.793678 -0.006121 
-0.431444 0.793590 -0.006121 
-0.425450 0.793678 -0.203200 
-0.431444 0.793590 -0.203200 
0.425726 1.054027 -0.005994 
0.429045 1.048026 -0.000000 
0.428907 0.798643 -0.001648 
0.429074 1.041329 -0.006121 
0.425434 0.801297 -0.005994 
0.429034 1.038554 -0.431800 
0.435019 1.037909 -0.393704 
0.425743 0.813675 -0.431800 
0.435027 1.038466 -0.431800 
0.425450 0.793678 -0.203200 
0.431736 0.813588 -0.431800 
0.435254 1.053940 -0.027655 
0.429260 1.054027 -0.141136 
0.435577 1.076004 -0.393358 
0.429583 1.076092 -0.393358 
0.431444 0.793590 -0.006121 
0.435254 1.053940 -0.141136 
0.431444 0.793590 -0.203200 
0.425450 0.793678 -0.006121 
0.429025 1.037997 -0.393704 
0.429260 1.054027 -0.027655 
0.435015 1.040628 -0.003186 
0.003190 1.054007 -0.000000 
-0.003188 1.054002 -0.005994 
-0.003175 0.925122 0.000000 
0.003175 0.925122 -0.005994 
0.003175 0.925122 -0.000000 
-0.149205 1.053994 -0.000000 
-0.155575 1.047678 0.000000 
-0.155575 0.925122 -0.005994 
0.149210 1.054006 -0.005994 
0.149225 0.925122 -0.005994 
0.155577 1.050249 -0.000005 
0.155575 0.925122 -0.000000 
0.155400 0.800027 0.190500 
0.155400 1.054027 0.203898 
0.149400 1.054027 0.203898 
0.155400 1.054027 -0.203898 
0.149400 0.800027 0.190500 
0.149402 0.946980 0.421640 
0.149400 0.816424 -0.377913 
0.149400 0.800027 -0.190500 
0.149400 1.073205 0.421640 
0.149400 0.944814 0.399776 
0.149400 0.800027 0.019050 
0.149400 1.054027 -0.203898 
0.155397 1.074125 0.399496 
0.155400 0.947850 0.399500 
0.155400 1.069203 0.377359 
0.155400 0.942814 0.377636 
0.155397 1.079134 -0.421621 
0.155379 0.807663 -0.006376 
0.155400 0.929567 -0.006350 
0.155400 0.929567 0.006350 
0.149400 0.800202 -0.006516 
0.155400 0.800027 -0.019050 
0.149400 0.816424 0.377913 
0.155527 0.822626 0.377396 
0.155400 0.816424 0.377913 
0.191369 0.820438 0.421349 
0.152402 0.823625 0.421641 
0.191371 0.822696 0.378214 
0.192384 0.816776 0.379436 
0.192415 0.826341 0.419910 
0.149400 1.069203 0.377359 
0.152518 1.075279 0.376840 
0.149400 1.071204 0.399499 
0.112382 1.073052 0.419880 
0.113424 1.079119 0.420275 
0.113481 1.069421 0.378172 
0.112413 1.075445 0.378336 
0.155400 0.800027 -0.190500 
0.155400 0.826496 -0.421640 
0.155527 0.822626 -0.377396 
0.155400 0.816424 -0.377913 
0.192418 0.822780 -0.379154 
0.191369 0.826425 -0.420838 
0.191302 0.816730 -0.378743 
0.149404 0.820541 -0.421655 
0.192385 0.820383 -0.420657 
0.149400 1.073144 -0.421640 
0.155400 1.069203 -0.377359 
0.112316 1.069461 -0.378018 
0.113429 1.073126 -0.420820 
0.111980 1.079047 -0.419461 
0.113261 1.075438 -0.378323 
0.151837 1.075284 -0.376823 
0.149421 0.807663 0.006376 
0.149400 0.929567 0.006350 
0.149400 0.929567 -0.006350 
0.155400 0.800202 0.006516 
-0.076213 1.282611 0.005994 
0.003193 1.282602 0.005994 
-0.161925 1.282627 0.005994 
0.073034 1.282615 0.005994 
0.287339 1.120385 0.005994 
0.149221 1.278799 0.005988 
0.142875 1.282627 0.005994 
0.146050 1.227700 0.005994 
-0.287339 1.120385 0.005994 
-0.155575 1.276277 0.005994 
-0.155575 1.172773 0.000000 
-0.425701 1.282627 0.000000 
-0.161925 1.282627 0.000000 
-0.425454 1.067997 -0.000000 
-0.149178 1.282614 0.000000 
0.155575 1.276277 0.000000 
0.161925 1.282627 0.000000 
0.149225 1.172773 0.000000 
0.003175 1.172773 0.000000 
0.003222 1.282613 0.000000 
0.161925 1.282627 0.005994 
0.425701 1.282627 0.005994 
-0.425454 1.067997 0.005994 
0.425454 1.067997 0.000000 
-0.425701 1.282627 0.005994 
0.428873 1.065114 0.001437 
0.431444 1.060275 0.006121 
0.432973 1.282599 0.000336 
0.429030 1.276627 0.000000 
0.429042 1.269929 0.006121 
0.425454 1.067997 0.005994 
0.429638 1.304690 0.393299 
0.435632 1.304587 0.393299 
0.429260 1.282627 0.141084 
0.429260 1.282627 0.027655 
0.425793 1.080374 0.431800 
0.434990 1.267147 0.431800 
0.428996 1.267250 0.431800 
0.431786 1.080272 0.431800 
0.434979 1.266494 0.393706 
0.435036 1.269827 0.006121 
0.435254 1.282525 0.027655 
0.435254 1.282525 0.141084 
0.428985 1.266597 0.393706 
0.425450 1.060377 0.203200 
0.425450 1.060377 0.006121 
0.431444 1.060275 0.203200 
-0.431959 1.271219 0.000624 
-0.429278 1.064320 0.001335 
-0.429042 1.269929 0.006121 
-0.428996 1.267250 0.431800 
-0.434990 1.267147 0.431800 
-0.431786 1.080272 0.431800 
-0.425450 1.060377 0.203200 
-0.425793 1.080374 0.431800 
-0.429260 1.282627 0.141084 
-0.435632 1.304587 0.393299 
-0.435254 1.282525 0.141084 
-0.434979 1.266494 0.393706 
-0.431444 1.060275 0.006121 
-0.435254 1.282525 0.027655 
-0.431444 1.060275 0.203200 
-0.429638 1.304690 0.393299 
-0.428985 1.266597 0.393706 
-0.429260 1.282627 0.027655 
-0.425450 1.060377 0.006121 
-0.435029 1.269760 0.004686 
-0.003175 1.172773 0.005994 
-0.003196 1.282607 0.000000 
-0.003175 1.172773 0.000000 
0.149198 1.282591 0.000000 
0.149225 1.172773 0.005994 
0.155575 1.172773 0.000000 
0.155575 1.276277 0.005994 
0.155575 1.172773 0.005994 
-0.149204 1.282607 0.005994 
-0.149225 1.172773 0.000000 
-0.149225 1.172773 0.005994 
-0.155575 1.172773 0.005994 
-0.155577 1.278849 0.000007 
-0.155400 1.297803 0.377359 
-0.149400 1.282627 0.203898 
-0.149400 1.282627 -0.203898 
-0.155400 1.066728 0.190500 
-0.149400 1.066728 0.190500 
-0.152397 1.090325 0.421641 
-0.155394 1.087454 0.421641 
-0.155400 1.301805 -0.421640 
-0.155396 1.087268 -0.421682 
-0.155400 1.282627 0.203898 
-0.155400 1.083124 0.377913 
-0.155400 1.066728 0.019050 
-0.155400 1.177217 -0.006350 
-0.155400 1.066728 -0.190500 
-0.155400 1.282627 -0.203898 
-0.149408 1.307646 0.421630 
-0.149400 1.190464 0.377636 
-0.149400 1.066728 -0.019050 
-0.149400 1.066728 -0.190500 
-0.149400 1.083124 -0.377913 
-0.149400 1.177217 0.006350 
-0.149400 1.083124 0.377913 
-0.112416 1.083476 0.379436 
-0.113429 1.089396 0.378214 
-0.113431 1.087138 0.421349 
-0.149273 1.089326 0.377396 
-0.112385 1.093041 0.419910 
-0.149400 1.297803 0.377359 
-0.155400 1.301805 0.421640 
-0.155400 1.299804 0.399499 
-0.192418 1.301652 0.419880 
-0.152281 1.303878 0.376840 
-0.191376 1.307720 0.420275 
-0.191319 1.298021 0.378172 
-0.192387 1.304045 0.378336 
-0.149400 1.297803 -0.377359 
-0.149273 1.089326 -0.377396 
-0.113497 1.083429 -0.378740 
-0.149400 1.093196 -0.421640 
-0.112415 1.087083 -0.420657 
-0.113431 1.093125 -0.420838 
-0.112382 1.089480 -0.379154 
-0.192489 1.298024 -0.378097 
-0.155400 1.297803 -0.377359 
-0.191371 1.301734 -0.420822 
-0.191498 1.304024 -0.378207 
-0.192825 1.307647 -0.419482 
-0.149404 1.307748 -0.421612 
-0.152828 1.303873 -0.376819 
-0.155400 1.177217 0.006350 
-0.149400 1.066901 0.006584 
-0.149400 1.177217 -0.006350 
-0.149430 1.074350 -0.006388 
-0.155370 1.074350 0.006388 
-0.155400 1.066901 -0.006584 
0.149178 1.282614 -0.000000 
0.003222 1.282614 -0.005994 
-0.003222 1.282613 -0.000000 
-0.142875 1.282627 -0.005994 
-0.149198 1.282591 -0.000000 
-0.003175 1.172773 -0.005994 
-0.149225 1.172773 -0.005994 
-0.155575 1.172773 -0.005994 
-0.425701 1.282627 -0.005994 
-0.155575 1.276277 -0.005994 
0.149225 1.172773 -0.005994 
0.155575 1.172773 -0.005994 
0.155575 1.276277 -0.005994 
0.425454 1.067997 -0.005994 
0.003175 1.172773 -0.000000 
0.425454 1.067997 0.000000 
